ply
format ascii 1.0
comment Generated by the CGAL library
element vertex 386
property double x
property double y
property double z
property int tags
property double nx
property double ny
property double nz
end_header
149.66999816894531 638.6199951171875 -40.972999572753906 128 0.99682199954986572 0.063970901072025299 0.04747840017080307 
-39.382999420166016 647.780029296875 -142.05999755859375 128 0.064461596310138702 -0.60668998956680298 -0.79232102632522583 
142.3699951171875 644.57000732421875 -11.239999771118164 128 0.8077239990234375 -0.0085078496485948563 0.58950001001358032 
-128.58000183105469 626.72998046875 3.0288000106811523 128 -0.79596298933029175 -0.0009863170562312007 0.60534501075744629 
-143.80999755859375 614.83001708984375 -46.918998718261719 128 -0.97763001918792725 -0.19520899653434753 0.078318402171134949 
-67.31500244140625 662.4000244140625 42.277999877929688 128 -0.077639900147914886 -0.010633300058543682 0.9969249963760376 
-39.382999420166016 680.239990234375 42.397998809814453 128 0.41544398665428162 -0.40183499455451965 0.81604897975921631 
109.27999877929688 656.91998291015625 36.332000732421875 128 0.28052899241447449 -0.50250297784805298 0.81779897212982178 
-27.489999771118164 650.510009765625 -143.1199951171875 128 -0.066166102886199951 -0.65141099691390991 -0.75583398342132568 
-104.79000091552734 638.6199951171875 30.753999710083008 128 -0.63371402025222778 -0.020649999380111694 0.77329200506210327 
-39.048999786376953 680.239990234375 42.277999877929688 128 0.29359400272369385 -0.16287100315093994 0.94195300340652466 
-143.47000122070312 614.83001708984375 -40.972999572753906 128 -0.98078697919845581 -0.16445299983024597 0.10493800044059753 
-122.62999725341797 618.510009765625 -100.44000244140625 128 -0.79145199060440063 -0.36324700713157654 -0.49158498644828796 
-57.222000122070312 668.3499755859375 42.918998718261719 128 -0.066559396684169769 -0.19531600177288055 0.97847902774810791 
-136.41999816894531 614.83001708984375 -76.6510009765625 128 -0.84200799465179443 0.0036960099823772907 -0.53945201635360718 
43.868000030517578 698.08001708984375 35.198001861572266 128 0.18831199407577515 -0.27029898762702942 0.94418001174926758 
-128.58000183105469 617.8800048828125 -88.543998718261719 128 -0.89519399404525757 -0.29425099492073059 -0.33473101258277893 
109.27999877929688 656.46002197265625 36.013999938964844 128 0.23021399974822998 -0.69034802913665771 0.68587201833724976 
-33.436000823974609 648.6500244140625 -142.05999755859375 128 0.090952903032302856 -0.62652802467346191 -0.7740740180015564 
-143.08999633789062 614.83001708984375 -35.0260009765625 128 -0.98736399412155151 -0.12216299772262573 0.100941002368927 
108.55000305175781 656.46002197265625 36.332000732421875 128 0.23021399974822998 -0.69034802913665771 0.68587201833724976 
115.23000335693359 654.1400146484375 30.385000228881836 128 0.33007699251174927 -0.72446900606155396 0.60513997077941895 
-142.77000427246094 614.83001708984375 -29.079999923706055 128 -0.98255300521850586 -0.027305800467729568 0.18396599590778351 
-134.52999877929688 620.780029296875 -4.9604001045227051 128 -0.8496289849281311 0.01166830025613308 0.52725100517272949 
129.91000366210938 650.510009765625 6.5991997718811035 128 0.69196301698684692 -0.5184820294380188 0.50235801935195923 
147.66000366210938 638.6199951171875 -23.132999420166016 128 0.92535597085952759 0.013571299612522125 0.37885499000549316 
141.66999816894531 626.72998046875 -100.44000244140625 128 0.93352502584457397 -0.0046188700944185257 -0.35848298668861389 
115.23000335693359 632.66998291015625 -125.41999816894531 128 0.72180402278900146 -0.10925500094890594 -0.68341898918151855 
-86.955001831054688 628.17999267578125 -130.16999816894531 128 0.077016197144985199 -0.67541700601577759 -0.73340302705764771 
-45.328998565673828 644.57000732421875 -140.19000244140625 128 0.093852803111076355 -0.67898797988891602 -0.72812497615814209 
2.2425000667572021 698.08001708984375 39.566001892089844 128 0.0029298400040715933 -0.40296900272369385 0.91520899534225464 
133.6199951171875 626.72998046875 -112.33000183105469 128 0.67075800895690918 0.093053601682186127 -0.73581498861312866 
139.00999450683594 644.57000732421875 -6.8888998031616211 128 0.81614398956298828 -0.13028499484062195 0.56296998262405396 
133.07000732421875 626.72998046875 -112.86000061035156 128 0.73782402276992798 0.083824798464775085 -0.66976797580718994 
144.05000305175781 626.72998046875 -94.490997314453125 128 0.92530101537704468 0.030701600015163422 -0.37798801064491272 
-21.542999267578125 650.510009765625 -143.17999267578125 128 0.026832800358533859 -0.64277499914169312 -0.76558500528335571 
91.44000244140625 662.4000244140625 45.798999786376953 128 0.40288901329040527 -0.3407210111618042 0.84946399927139282 
109.47000122070312 632.66998291015625 -130.16999816894531 128 0.49885299801826477 -0.24101799726486206 -0.83249902725219727 
109.27999877929688 632.66998291015625 -130.33000183105469 128 0.68372899293899536 -0.19082300364971161 -0.7043449878692627 
-110.43000030517578 620.780029296875 -112.33000183105469 128 -0.48221799731254578 -0.084599100053310394 -0.87195700407028198 
-132.17999267578125 614.83001708984375 -82.597999572753906 128 -0.82341599464416504 -0.081237800419330597 -0.5615919828414917 
151.32000732421875 626.72998046875 -76.6510009765625 128 0.93005502223968506 0.15314300358295441 -0.33398300409317017 
144.96000671386719 626.72998046875 -92.018997192382812 128 0.92465102672576904 0.13001300394535065 -0.35793399810791016 
150.89999389648438 626.72998046875 -77.712997436523438 128 0.93005502223968506 0.15314300358295441 -0.33398300409317017 
103.33000183105469 632.66998291015625 -135.25999450683594 128 0.59565901756286621 -0.32605099678039551 -0.73408502340316772 
153.02999877929688 626.72998046875 -70.705001831054688 128 0.93994700908660889 0.11816400289535522 -0.32021299004554749 
102.19000244140625 632.66998291015625 -136.1199951171875 128 0.59565901756286621 -0.32605099678039551 -0.73408502340316772 
-111.76000213623047 632.66998291015625 24.438999176025391 128 -0.6744840145111084 -0.03005559928715229 0.73767799139022827 
148.83999633789062 626.72998046875 -82.597999572753906 128 0.93994700908660889 0.11816400289535522 -0.32021299004554749 
146.27999877929688 626.72998046875 -88.543998718261719 128 0.93352502584457397 -0.0046188700944185257 -0.35848298668861389 
97.386001586914062 660.1199951171875 42.277999877929688 128 0.30770200490951538 -0.39958301186561584 0.86351197957992554 
26.027999877929688 639 -159.89999389648438 128 -0.26660400629043579 -0.41971099376678467 -0.86761999130249023 
37.921001434326172 698.09002685546875 36.332000732421875 128 0.17658799886703491 -0.27008101344108582 0.94650602340698242 
-140.52999877929688 614.83001708984375 -17.187000274658203 128 -0.95514202117919922 -0.020256400108337402 0.2954539954662323 
-140.47000122070312 614.83001708984375 -17.01300048828125 192 -0.95514202117919922 -0.020256400108337402 0.2954539954662323 
145.75 638.6199951171875 -17.187000274658203 128 0.89085102081298828 0.034296698868274689 0.45300000905990601 
127.12000274658203 650.510009765625 10.147000312805176 128 0.69369697570800781 -0.38233199715614319 0.61041498184204102 
-110.73999786376953 632.66998291015625 25.472000122070312 128 -0.72217798233032227 -0.025369999930262566 0.69124197959899902 
26.547000885009766 638.6199951171875 -159.89999389648438 128 -0.32000899314880371 -0.49842599034309387 -0.80570799112319946 
137.63999938964844 644.57000732421875 -5.2937002182006836 128 0.81614398956298828 -0.13028499484062195 0.56296998262405396 
-81.008003234863281 650.510009765625 40.303001403808594 128 -0.27896499633789062 0.027074199169874191 0.95991998910903931 
150.89999389648438 632.66998291015625 -48.693000793457031 128 0.98340100049972534 0.087141998112201691 0.15915000438690186 
-63.168998718261719 662.4000244140625 42.546001434326172 128 0.059556901454925537 -0.097503498196601868 0.99345201253890991 
10.230999946594238 644.57000732421875 -153.96000671386719 128 -0.49756899476051331 -0.6029999852180481 -0.62355202436447144 
153.77000427246094 626.72998046875 -64.758003234863281 128 0.98932898044586182 0.14258399605751038 -0.029962500557303429 
26.027999877929688 638.6199951171875 -159.64999389648438 128 -0.26660400629043579 -0.41971099376678467 -0.86761999130249023 
-128.58000183105469 614.83001708984375 -87.764999389648438 192 -0.89162701368331909 -0.25229901075363159 -0.37596100568771362 
-142.07000732421875 608.8900146484375 -64.758003234863281 192 -0.97861701250076294 -0.16552500426769257 -0.12210900336503983 
-75.061996459960938 632.66998291015625 -131.85000610351562 128 0.12866300344467163 -0.6543470025062561 -0.74516898393630981 
-128.05999755859375 614.83001708984375 -88.543998718261719 128 -0.76241099834442139 0.022050900384783745 -0.64671802520751953 
127.12000274658203 626.72998046875 -117.55999755859375 128 0.52144700288772583 0.010929600335657597 -0.85321402549743652 
-86.955001831054688 626.72998046875 -128.89999389648438 128 -0.42159700393676758 -0.57716000080108643 -0.69938701391220093 
55.761001586914062 632.66998291015625 -159.47000122070312 128 0.17619700729846954 -0.23030500113964081 -0.95703399181365967 
125.23999786376953 650.510009765625 12.545999526977539 128 0.5906519889831543 -0.6588280200958252 0.46591401100158691 
31.975000381469727 698.08001708984375 37.402999877929688 128 0.23248399794101715 -0.28227299451828003 0.93073797225952148 
125.98999786376953 626.72998046875 -118.27999877929688 128 0.52144700288772583 0.010929600335657597 -0.85321402549743652 
-116.69000244140625 616.510009765625 -106.37999725341797 128 -0.62202697992324829 -0.35093998908996582 -0.69994598627090454 
73.599998474121094 632.66998291015625 -152.13999938964844 128 0.35885700583457947 -0.37887799739837646 -0.85303699970245361 
85.492996215820312 662.4000244140625 48.703998565673828 128 0.38235399127006531 -0.36971199512481689 0.84682899713516235 
74.225997924804688 674.29998779296875 42.277999877929688 128 -0.99949699640274048 -0.0051190699450671673 0.031289100646972656 
-124.19999694824219 614.83001708984375 -94.490997314453125 192 -0.72338098287582397 -0.18953000009059906 -0.66392600536346436 
-21.542999267578125 649.15997314453125 -142.05999755859375 128 -0.071084998548030853 -0.68735200166702271 -0.72283798456192017 
-92.9010009765625 624.510009765625 -124.22000122070312 128 -0.14498999714851379 -0.67009001970291138 -0.72798198461532593 
-137.33000183105469 608.8900146484375 -76.6510009765625 192 -0.92021298408508301 0.0091364197432994843 -0.39131200313568115 
-122.62999725341797 614.83001708984375 -96.90899658203125 128 -0.73684298992156982 -0.46138298511505127 -0.49415400624275208 
-39.382999420166016 644.57000732421875 -139.32000732421875 128 0.081669799983501434 -0.64650499820709229 -0.7585260272026062 
-57.222000122070312 638.6199951171875 -135.89999389648438 128 0.074029900133609772 -0.71114897727966309 -0.69913297891616821 
-120.36000061035156 614.83001708984375 -100.44000244140625 192 -0.71544098854064941 -0.42949101328849792 -0.55107301473617554 
-15.597000122070312 692.1400146484375 38.201999664306641 128 0.1505499929189682 -0.26697701215744019 0.95187097787857056 
121.16999816894531 650.719970703125 18.492000579833984 128 0.63974398374557495 -0.6070600152015686 0.47138699889183044 
149.66000366210938 632.66998291015625 -35.0260009765625 128 0.98572397232055664 0.044258199632167816 0.16244800388813019 
142.38999938964844 638.6199951171875 -11.239999771118164 128 0.8213229775428772 -0.0046723200939595699 0.57044398784637451 
-69.114997863769531 656.46002197265625 42.018001556396484 128 0.0071361600421369076 -0.052059300243854523 0.99861800670623779 
-116.98999786376953 626.72998046875 18.492000579833984 128 -0.75099098682403564 -0.026959899812936783 0.65976202487945557 
91.44000244140625 630.96002197265625 -142.05999755859375 128 0.48933398723602295 -0.48103800415992737 -0.72743099927902222 
121.16999816894531 650.510009765625 18.138999938964844 128 0.51395899057388306 -0.72086101770401001 0.46498000621795654 
-116.69000244140625 626.72998046875 18.83799934387207 128 -0.77184897661209106 -0.025442799553275108 0.63529598712921143 
-105.13999938964844 632.66998291015625 30.385000228881836 128 -0.63456499576568604 -0.0095501802861690521 0.77281099557876587 
-104.79000091552734 632.66998291015625 30.652999877929688 128 -0.56174099445343018 -0.0067034000530838966 0.8272860050201416 
148.99000549316406 632.66998291015625 -29.079999923706055 128 0.96586400270462036 0.014752199873328209 0.25863099098205566 
-134.77999877929688 614.83001708984375 -5.2937002182006836 128 -0.82142001390457153 -0.0032703999895602465 0.57031399011611938 
-115.63999938964844 614.83001708984375 -106.37999725341797 128 -0.62053602933883667 -0.26209700107574463 -0.73908102512359619 
-142.53999328613281 608.8900146484375 -29.079999923706055 192 -0.98546600341796875 -0.01272599957883358 0.1693979948759079 
-134.52999877929688 614.83001708984375 -4.8994998931884766 192 -0.8559110164642334 3.1438099540537223e-05 0.51712298393249512 
55.761001586914062 692.1400146484375 31.844999313354492 128 0.18663400411605835 -0.21721500158309937 0.95811498165130615 
73.862998962402344 668.3499755859375 48.224998474121094 128 -0.97920602560043335 -0.015619600191712379 0.20226700603961945 
37.921001434326172 632.66998291015625 -160.60000610351562 128 -0.39191600680351257 -0.59887999296188354 -0.6983870267868042 
-141.96000671386719 608.8900146484375 -23.132999420166016 192 -0.94895899295806885 -0.0053343400359153748 0.31535300612449646 
152.25999450683594 626.72998046875 -52.866001129150391 128 0.98390597105026245 0.12443099915981293 0.12824399769306183 
138.02000427246094 620.780029296875 -106.37999725341797 128 0.86678200960159302 0.0016636200016364455 -0.49868500232696533 
-98.847999572753906 620.780029296875 -119.01000213623047 128 -0.28484699130058289 -0.49280598759651184 -0.82219499349594116 
139.00999450683594 620.780029296875 -104.63999938964844 128 0.80902397632598877 0.016975199803709984 -0.58753001689910889 
152.00999450683594 620.780029296875 -76.6510009765625 128 0.91759002208709717 0.11080099642276764 -0.38177499175071716 
147.75 632.66998291015625 -23.132999420166016 128 0.9297410249710083 0.0010075799655169249 0.3682120144367218 
153.77999877929688 620.780029296875 -70.705001831054688 128 0.93581998348236084 0.10246499627828598 -0.33725801110267639 
141.08999633789062 620.780029296875 -100.44000244140625 128 0.92273998260498047 -0.080741003155708313 -0.37687200307846069 
-92.9010009765625 638.6199951171875 37.029998779296875 128 -0.38921698927879333 -0.021635500714182854 0.92089200019836426 
79.5469970703125 662.4000244140625 50.828998565673828 128 -0.20376500487327576 -0.38646999001502991 0.89951097965240479 
133.41000366210938 620.780029296875 -112.33000183105469 128 0.78754997253417969 -0.10274100303649902 -0.60762602090835571 
-33.436000823974609 680.239990234375 40.251998901367188 128 0.31963801383972168 -0.16358299553394318 0.93331301212310791 
-75.061996459960938 650.510009765625 41.387001037597656 128 -0.21400099992752075 0.032303199172019958 0.976298987865448 
-51.2760009765625 639.28997802734375 -136.1199951171875 128 0.093852803111076355 -0.67898797988891602 -0.72812497615814209 
-140.49000549316406 608.8900146484375 -17.187000274658203 128 -0.94962400197982788 -0.003582279896363616 0.3133699893951416 
116.12000274658203 650.510009765625 24.438999176025391 128 0.44161298871040344 -0.67597001791000366 0.58995199203491211 
-140.47000122070312 608.8900146484375 -17.143999099731445 192 -0.92957597970962524 -0.0028316599782556295 0.36862099170684814 
115.23000335693359 626.97998046875 -124.22000122070312 128 0.55478698015213013 -0.099112100899219513 -0.82606798410415649 
67.653999328613281 686.19000244140625 29.254999160766602 128 0.21162800490856171 -0.0038660198915749788 0.97734302282333374 
-15.597000122070312 648.030029296875 -142.05999755859375 128 -0.26971501111984253 -0.66676098108291626 -0.69475400447845459 
35.681999206542969 632.66998291015625 -159.89999389648438 128 -0.32000899314880371 -0.49842599034309387 -0.80570799112319946 
143.52999877929688 620.780029296875 -94.490997314453125 128 0.90145200490951538 -0.11182600259780884 -0.41818499565124512 
-110.73999786376953 614.83001708984375 -110.76999664306641 128 -0.70300000905990601 -0.28614598512649536 -0.6510850191116333 
115.23000335693359 626.72998046875 -124.18000030517578 128 0.6147729754447937 -0.19798700511455536 -0.763450026512146 
144.96000671386719 620.780029296875 -91.177001953125 128 0.93348598480224609 0.0035737499129027128 -0.35859701037406921 
115.15000152587891 626.72998046875 -124.22000122070312 128 0.6147729754447937 -0.19798700511455536 -0.763450026512146 
154.44999694824219 620.780029296875 -64.758003234863281 128 0.99201899766921997 0.12232299894094467 -0.030592199414968491 
139.00999450683594 638.6199951171875 -7.1291999816894531 128 0.78928697109222412 -0.031571701169013977 0.613211989402771 
-122.62999725341797 620.780029296875 11.130999565124512 128 -0.81091499328613281 -0.014088500291109085 0.58499497175216675 
76.755996704101562 674.29998779296875 36.332000732421875 128 -0.95541799068450928 0.12703500688076019 -0.26653000712394714 
-108.76000213623047 614.83001708984375 -112.33000183105469 128 -0.62675201892852783 -0.22627200186252594 -0.74564200639724731 
-33.436000823974609 644.57000732421875 -138.52999877929688 128 0.1032940000295639 -0.65815800428390503 -0.74576002359390259 
-57.222000122070312 662.4000244140625 42.305000305175781 128 0.093046598136425018 -0.067367501556873322 0.99338001012802124 
-110.73999786376953 626.72998046875 25.273000717163086 128 -0.71864801645278931 -0.030517200008034706 0.69470399618148804 
103.33000183105469 654.07000732421875 36.332000732421875 128 0.14838500320911407 -0.76624602079391479 0.62518000602722168 
145.75 632.66998291015625 -17.187000274658203 128 0.87696599960327148 -0.0042761899530887604 0.48053398728370667 
-121.58000183105469 620.780029296875 12.545999526977539 128 -0.81091499328613281 -0.014088500291109085 0.58499497175216675 
127.12000274658203 646.25 6.5991997718811035 128 0.6399570107460022 -0.58375799655914307 0.49968099594116211 
-51.2760009765625 638.6199951171875 -135.47000122070312 128 0.10394000262022018 -0.71067500114440918 -0.69580000638961792 
2.2425000667572021 644.57000732421875 -147.8800048828125 128 -0.41182899475097656 -0.63191801309585571 -0.65656399726867676 
-140.47000122070312 602.94000244140625 -68.672996520996094 64 -0.9431229829788208 -0.016927300021052361 -0.33201399445533752 
-56.881999969482422 662.4000244140625 42.277999877929688 128 0.093046598136425018 -0.067367501556873322 0.99338001012802124 
-127.62999725341797 608.8900146484375 -88.543998718261719 192 -0.69288301467895508 0.076304100453853607 -0.71700102090835571 
127.12000274658203 620.780029296875 -117.63999938964844 128 0.54848301410675049 0.0080949598923325539 -0.83612197637557983 
79.5469970703125 676.08001708984375 30.385000228881836 128 -0.22767800092697144 0.13753899931907654 0.9639739990234375 
115.23000335693359 649.94000244140625 24.438999176025391 128 0.51395899057388306 -0.72086101770401001 0.46498000621795654 
-137.78999328613281 602.94000244140625 -76.6510009765625 64 -0.94896399974822998 -0.073498398065567017 -0.30670100450515747 
-98.847999572753906 618.52001953125 -118.27999877929688 128 -0.17782700061798096 -0.2559410035610199 -0.9501960277557373 
144.96000671386719 632.66998291015625 -15.604000091552734 128 0.87432700395584106 0.0033348801080137491 0.48532599210739136 
-122.62999725341797 610.57000732421875 -94.490997314453125 192 -0.79145199060440063 -0.36324700713157654 -0.49158498644828796 
-98.847999572753906 632.66998291015625 34.352001190185547 128 -0.34404799342155457 -0.020994100719690323 0.93871700763702393 
17.437000274658203 638.6199951171875 -153.96000671386719 128 -0.49543601274490356 -0.62808698415756226 -0.6000409722328186 
154.11000061035156 620.780029296875 -58.812000274658203 128 0.97744697332382202 0.079622797667980194 0.19559599459171295 
-104.79000091552734 614.83001708984375 -114.87000274658203 128 -0.294281005859375 -0.18202799558639526 -0.93822401762008667 
-134.52999877929688 602.94000244140625 -82.045997619628906 64 -0.76403301954269409 0.05730380117893219 -0.642628014087677 
-141.6199951171875 602.94000244140625 -52.866001129150391 64 -0.98234498500823975 -0.18705299496650696 -0.0028727899771183729 
-63.168998718261719 656.46002197265625 42.244998931884766 128 0.042348898947238922 -0.025555100291967392 0.99877601861953735 
133.07000732421875 617.3599853515625 -112.33000183105469 128 0.67893999814987183 -0.048533700406551361 -0.73258799314498901 
109.27999877929688 650.83001708984375 30.385000228881836 128 0.16394400596618652 -0.79288697242736816 0.58690100908279419 
150.03999328613281 626.72998046875 -35.0260009765625 128 0.98191297054290771 0.032361399382352829 0.18654699623584747 
103.33000183105469 626.72998046875 -131.39999389648438 128 0.41265198588371277 -0.54289299249649048 -0.73142701387405396 
49.813999176025391 692.1400146484375 32.657001495361328 128 0.18831199407577515 -0.27029898762702942 0.94418001174926758 
127.12000274658203 644.57000732421875 5.7878999710083008 128 0.71661800146102905 -0.10049699991941452 0.69018799066543579 
-141.85000610351562 602.94000244140625 -46.918998718261719 64 -0.98963701725006104 -0.1435530036687851 0.003250849898904562 
-116.80000305175781 620.780029296875 18.492000579833984 192 -0.77036398649215698 -0.018918700516223907 0.63732397556304932 
-134.82000732421875 608.8900146484375 -5.2937002182006836 192 -0.82535797357559204 0.0048201601020991802 0.56458902359008789 
121.16999816894531 620.780029296875 -121.08000183105469 128 0.38993099331855774 -0.0034511999692767859 -0.92083799839019775 
-142.3800048828125 602.94000244140625 -35.0260009765625 64 -0.99821799993515015 -0.055404800921678543 0.022143000736832619 
55.761001586914062 626.72998046875 -157.47000122070312 128 0.40974900126457214 -0.40820899605751038 -0.81576400995254517 
-142.44000244140625 602.94000244140625 -29.079999923706055 64 -0.98692101240158081 -0.0055506201460957527 0.16110700368881226 
49.813999176025391 626.72998046875 -159.03999328613281 128 0.17619700729846954 -0.23030500113964081 -0.95703399181365967 
142.30000305175781 632.66998291015625 -11.239999771118164 128 0.8077239990234375 -0.0085078496485948563 0.58950001001358032 
20.082000732421875 636.5 -153.96000671386719 128 -0.46930399537086487 -0.64301198720932007 -0.60521799325942993 
-141.91999816894531 602.94000244140625 -23.132999420166016 64 -0.94962400197982788 -0.003582279896363616 0.3133699893951416 
-104.87000274658203 626.72998046875 30.385000228881836 128 -0.56838500499725342 -0.023826900869607925 0.82241702079772949 
-27.489999771118164 644.57000732421875 -137.97999572753906 128 0.026832800358533859 -0.64277499914169312 -0.76558500528335571 
152.8699951171875 620.780029296875 -52.866001129150391 128 0.98707801103591919 0.089904896914958954 0.13264399766921997 
-104.79000091552734 626.72998046875 30.445999145507812 128 -0.63371402025222778 -0.020649999380111694 0.77329200506210327 
31.975000381469727 694.969970703125 36.332000732421875 128 0.10937300324440002 -0.34175500273704529 0.93340301513671875 
97.386001586914062 626.72998046875 -134.99000549316406 128 0.40226399898529053 -0.6034659743309021 -0.68848502635955811 
152.58000183105469 614.83001708984375 -76.6510009765625 128 0.9781000018119812 0.078670702874660492 -0.19269700348377228 
73.599998474121094 680.239990234375 28.150999069213867 128 -0.16501399874687195 0.32666501402854919 0.93062400817871094 
91.44000244140625 656.84002685546875 42.277999877929688 128 0.21685799956321716 -0.61731302738189697 0.75623899698257446 
-39.382999420166016 641.09002685546875 -136.1199951171875 128 0.093852803111076355 -0.67898797988891602 -0.72812497615814209 
95.428001403808594 626.72998046875 -136.1199951171875 128 0.36060398817062378 -0.62065297365188599 -0.69624298810958862 
63.049999237060547 626.72998046875 -153.96000671386719 128 0.38246798515319824 -0.42875999212265015 -0.81846398115158081 
-21.542999267578125 686.19000244140625 37.333999633789062 128 0.26213499903678894 -0.19454799592494965 0.94521802663803101 
150.89999389648438 614.83001708984375 -80.166000366210938 128 0.89602398872375488 0.083210103213787079 -0.43613800406455994 
-69.114997863769531 650.510009765625 42.051998138427734 128 -0.14946900308132172 0.029177999123930931 0.98833602666854858 
-63.168998718261719 632.66998291015625 -130.07000732421875 128 0.044573400169610977 -0.72272199392318726 -0.68970000743865967 
149.58999633789062 614.83001708984375 -82.597999572753906 128 0.89602398872375488 0.083210103213787079 -0.43613800406455994 
-140.47999572753906 602.94000244140625 -17.187000274658203 64 -0.92059701681137085 -0.0042399098165333271 0.39048999547958374 
-117.08999633789062 608.8900146484375 -100.44000244140625 128 -0.72994697093963623 -0.19115500152111053 -0.65622901916503906 
-45.328998565673828 638.6199951171875 -134.63999938964844 128 0.10568500310182571 -0.74237698316574097 -0.66159498691558838 
147.80000305175781 626.72998046875 -23.132999420166016 128 0.92309397459030151 -0.0072917398065328598 0.3845050036907196 
154.94999694824219 614.83001708984375 -64.758003234863281 128 0.9781000018119812 0.078670702874660492 -0.19269700348377228 
43.868000030517578 626.72998046875 -158.94000244140625 128 0.13990099728107452 -0.34074300527572632 -0.92968899011611938 
136.96000671386719 614.83001708984375 -106.37999725341797 128 0.87862002849578857 -0.10353700071573257 -0.46616199612617493 
61.707000732421875 686.19000244140625 30.180000305175781 128 0.17858800292015076 -0.12552100419998169 0.97588402032852173 
133.07000732421875 638.6199951171875 -1.3026000261306763 128 0.71401298046112061 -0.16838900744915009 0.67958098649978638 
-134.52999877929688 599.46002197265625 -82.597999572753906 64 -0.81651598215103149 0.10058599710464478 -0.56849300861358643 
139.00999450683594 614.83001708984375 -102.76000213623047 128 0.87862002849578857 -0.10353700071573257 -0.46616199612617493 
133.07000732421875 614.83001708984375 -111.93000030517578 128 0.67893999814987183 -0.048533700406551361 -0.73258799314498901 
-104.79000091552734 625.29998779296875 30.385000228881836 128 -0.56186401844024658 -0.033534198999404907 0.8265489935874939 
85.492996215820312 626.72998046875 -141.61000061035156 128 0.37633201479911804 -0.60911500453948975 -0.69810700416564941 
140.19999694824219 614.83001708984375 -100.44000244140625 128 0.85619401931762695 -0.028841100633144379 -0.51584899425506592 
-128.58000183105469 602.94000244140625 -88.003997802734375 64 -0.66891902685165405 0.10741300135850906 -0.73553401231765747 
146.1199951171875 614.83001708984375 -88.543998718261719 128 0.85452598333358765 0.089091598987579346 -0.5117110013961792 
73.589996337890625 626.72998046875 -148.00999450683594 128 0.42338299751281738 -0.51912802457809448 -0.74246400594711304 
73.599998474121094 626.72998046875 -148 128 0.42338299751281738 -0.51912802457809448 -0.74246400594711304 
-127.94999694824219 602.94000244140625 -88.543998718261719 64 -0.61598598957061768 0.10872200131416321 -0.78021800518035889 
151.72000122070312 620.780029296875 -46.918998718261719 128 0.99120497703552246 0.082439899444580078 0.10352200269699097 
-140.47000122070312 601.57000732421875 -17.187000274658203 64 -0.96327400207519531 -0.028451599180698395 0.26700800657272339 
-116.69000244140625 607.97998046875 -100.44000244140625 192 -0.70860397815704346 -0.14592400193214417 -0.69035297632217407 
74.649002075195312 662.4000244140625 48.224998474121094 128 -0.98589301109313965 0.16461199522018433 0.030309200286865234 
-130.44999694824219 608.8900146484375 0.6527400016784668 192 -0.77581101655960083 -0.038882501423358917 0.62976598739624023 
-116.69000244140625 617.71002197265625 18.492000579833984 192 -0.75099098682403564 -0.026959899812936783 0.65976202487945557 
-139.30999755859375 596.989990234375 -70.705001831054688 64 -0.93598002195358276 -0.028284899890422821 -0.35091501474380493 
-110.73999786376953 620.780029296875 25.020000457763672 128 -0.68813401460647583 -0.032517198473215103 0.72485500574111938 
150.89999389648438 621.59002685546875 -40.972999572753906 128 0.99023598432540894 0.04285610094666481 0.1326490044593811 
26.027999877929688 632.66998291015625 -154.60000610351562 128 -0.48995500802993774 -0.63446301221847534 -0.59782999753952026 
-140.05000305175781 596.989990234375 -64.758003234863281 64 -0.97421598434448242 -0.1164110004901886 -0.19326600432395935 
130.94000244140625 638.6199951171875 0.6527400016784668 128 0.69607299566268921 -0.19028499722480774 0.69229602813720703 
-134.72000122070312 596.989990234375 -82.597999572753906 64 -0.80211299657821655 -0.017376899719238281 -0.59691900014877319 
150.97000122070312 620.780029296875 -40.972999572753906 128 0.99298697710037231 0.075932100415229797 0.090612299740314484 
120.91000366210938 644.57000732421875 12.545999526977539 128 0.7127079963684082 -0.14180800318717957 0.68697798252105713 
25.190000534057617 632.66998291015625 -153.96000671386719 128 -0.47586199641227722 -0.6824759840965271 -0.55478101968765259 
-15.597000122070312 644.57000732421875 -138.8800048828125 128 -0.26559099555015564 -0.69611102342605591 -0.66700202226638794 
-98.847999572753906 626.72998046875 34.141998291015625 128 -0.35112300515174866 -0.028200799599289894 0.93590497970581055 
-128.58000183105469 608.8900146484375 2.9628000259399414 192 -0.77581101655960083 -0.038882501423358917 0.62976598739624023 
-140.38999938964844 596.989990234375 -58.812000274658203 64 -0.98962497711181641 -0.11674000322818756 -0.083751402795314789 
26.027999877929688 632.08001708984375 -153.96000671386719 128 -0.47586199641227722 -0.6824759840965271 -0.55478101968765259 
-140.47000122070312 596.989990234375 -57.125 192 -0.99024802446365356 -0.071179397404193878 -0.11975900083780289 
-27.489999771118164 642.6199951171875 -136.1199951171875 128 0.090268403291702271 -0.6877020001411438 -0.72035902738571167 
-104.79000091552734 608.8900146484375 -113.76999664306641 128 -0.59701597690582275 -0.20372800529003143 -0.77592897415161133 
150.3699951171875 620.780029296875 -35.0260009765625 128 0.9913250207901001 0.068646296858787537 0.11207800358533859 
-140.74000549316406 596.989990234375 -52.866001129150391 64 -0.98648697137832642 -0.15550699830055237 -0.051591601222753525 
-142.3699951171875 596.989990234375 -29.079999923706055 192 -0.98283499479293823 -0.019373800605535507 0.18346400558948517 
-141.3699951171875 596.989990234375 -46.918998718261719 64 -0.98962497711181641 -0.11674000322818756 -0.083751402795314789 
-142.22999572753906 596.989990234375 -35.0260009765625 64 -0.99707198143005371 -0.031455699354410172 -0.069698497653007507 
-134.75999450683594 602.94000244140625 -5.2937002182006836 64 -0.84535998106002808 -0.055006701499223709 0.53135800361633301 
-122.62999725341797 602.94000244140625 -93.054000854492188 64 -0.72338098287582397 -0.18953000009059906 -0.66392600536346436 
-128.58000183105469 598.96002197265625 -88.543998718261719 64 -0.64719200134277344 0.068549498915672302 -0.75923901796340942 
37.921001434326172 626.72998046875 -156.67999267578125 128 -0.20775200426578522 -0.53874498605728149 -0.8164520263671875 
121.16999816894531 614.83001708984375 -121.47000122070312 128 0.35246101021766663 0.11876499652862549 -0.92826002836227417 
109.27999877929688 620.780029296875 -125.90000152587891 128 0.36002999544143677 -0.29950100183486938 -0.88355898857116699 
-141.89999389648438 596.989990234375 -23.132999420166016 64 -0.99944400787353516 -0.0078410003334283829 0.032412201166152954 
153.05000305175781 608.8900146484375 -76.6510009765625 128 0.985260009765625 0.043489400297403336 -0.16544200479984283 
-116.69000244140625 614.83001708984375 18.353000640869141 192 -0.77184897661209106 -0.025442799553275108 0.63529598712921143 
91.44000244140625 624.280029296875 -136.1199951171875 128 0.41265198588371277 -0.54289299249649048 -0.73142701387405396 
154.72999572753906 608.8900146484375 -70.705001831054688 128 0.93451899290084839 0.064923502504825592 -0.34994098544120789 
2.2425000667572021 692.1400146484375 37.310001373291016 128 -0.011020599864423275 -0.31188398599624634 0.95005601644515991 
-39.382999420166016 638.6199951171875 -133.69000244140625 128 0.10394000262022018 -0.71067500114440918 -0.69580000638961792 
37.921001434326172 692.1400146484375 34.548000335693359 128 0.19640100002288818 -0.23736700415611267 0.95135897397994995 
149.41000366210938 620.780029296875 -29.079999923706055 128 0.95255601406097412 -0.0070206401869654655 0.30428099632263184 
-125.76000213623047 608.8900146484375 6.5991997718811035 64 -0.78640002012252808 -0.046282999217510223 0.61598098278045654 
-81.008003234863281 620.780029296875 -122.98000335693359 128 -0.14498999714851379 -0.67009001970291138 -0.72798198461532593 
-9.6504001617431641 689.489990234375 36.332000732421875 128 0.15185399353504181 -0.32026499509811401 0.93507802486419678 
-140.47000122070312 596.989990234375 -17.382999420166016 64 -0.94962400197982788 -0.003582279896363616 0.3133699893951416 
-33.436000823974609 674.29998779296875 39.339000701904297 128 0.36230000853538513 -0.16556000709533691 0.91724002361297607 
8.189000129699707 638.6199951171875 -146.25999450683594 128 -0.46655699610710144 -0.6859089732170105 -0.5584380030632019 
-128.94000244140625 596.989990234375 -88.543998718261719 64 -0.72734802961349487 0.039998799562454224 -0.68510198593139648 
-92.9010009765625 613.94000244140625 -118.27999877929688 192 0.027112100273370743 -0.23259100317955017 -0.97219699621200562 
155.25999450683594 608.8900146484375 -64.758003234863281 128 0.985260009765625 0.043489400297403336 -0.16544200479984283 
67.653999328613281 680.239990234375 28.863000869750977 128 -0.014081800356507301 0.11241299659013748 0.99356198310852051 
146.6300048828125 608.8900146484375 -88.543998718261719 128 0.87999200820922852 0.013392800465226173 -0.47479900717735291 
144.96000671386719 608.8900146484375 -91.186996459960938 130 0.84189099073410034 0.15233400464057922 -0.51770102977752686 
-94.0260009765625 626.72998046875 36.332000732421875 192 -0.40178099274635315 -0.039907701313495636 0.91486597061157227 
79.5469970703125 623.92999267578125 -142.05999755859375 128 0.38295900821685791 -0.62582302093505859 -0.67947602272033691 
8.189000129699707 692.1400146484375 37.326000213623047 128 0.023934800177812576 -0.32102099061012268 0.94676899909973145 
-140.47000122070312 593.92999267578125 -52.866001129150391 64 -0.98707997798919678 -0.15124699473381042 -0.052885301411151886 
-51.2760009765625 633.6500244140625 -130.16999816894531 128 0.077255599200725555 -0.7317119836807251 -0.67722201347351074 
152.02000427246094 614.83001708984375 -46.918998718261719 128 0.97735899686813354 0.049284998327493668 0.20576700568199158 
26.027999877929688 692.53997802734375 36.332000732421875 128 0.066637799143791199 -0.3613010048866272 0.93006497621536255 
-98.847999572753906 608.8900146484375 -116.52999877929688 128 -0.5034869909286499 -0.16675500571727753 -0.84775799512863159 
114.88999938964844 644.57000732421875 18.492000579833984 128 0.35676199197769165 -0.56599098443984985 0.74321997165679932 
103.33000183105469 620.780029296875 -128.21000671386719 128 0.31460699439048767 -0.39213401079177856 -0.86443799734115601 
-122.62999725341797 608.8900146484375 10.720999717712402 64 -0.7910040020942688 -0.047982100397348404 0.60992699861526489 
139.63999938964844 608.8900146484375 -100.44000244140625 128 0.81864798069000244 0.1003739982843399 -0.56545698642730713 
136.02000427246094 608.8900146484375 -106.37999725341797 128 0.83069199323654175 -0.12664599716663361 -0.54213601350784302 
31.975000381469727 628.02001953125 -153.96000671386719 128 -0.34559899568557739 -0.55697000026702881 -0.75521200895309448 
-137.41000366210938 591.04998779296875 -76.6510009765625 64 -0.86632800102233887 -0.012345200404524803 -0.49932301044464111 
115.23000335693359 614.83001708984375 -123.98000335693359 128 0.37143000960350037 0.24895299971103668 -0.894461989402771 
-137.99000549316406 596.989990234375 -11.239999771118164 64 -0.96327400207519531 -0.028451599180698395 0.26700800657272339 
109.27999877929688 646.67999267578125 24.438999176025391 128 0.11709800362586975 -0.69266998767852783 0.71168500185012817 
-130.33000183105469 602.94000244140625 0.6527400016784668 64 -0.77028900384902954 -0.059326998889446259 0.63492900133132935 
-92.9010009765625 626.72998046875 36.779998779296875 192 -0.40178099274635315 -0.039907701313495636 0.91486597061157227 
133.07000732421875 632.66998291015625 -1.5669000148773193 128 0.69342297315597534 -0.070371299982070923 0.71708601713180542 
-138.58999633789062 591.04998779296875 -70.705001831054688 64 -0.94595599174499512 -0.070943303406238556 -0.31643900275230408 
-114.97000122070312 602.94000244140625 -100.44000244140625 192 -0.73168301582336426 -0.37255400419235229 -0.57082700729370117 
-111.06999969482422 614.83001708984375 24.438999176025391 192 -0.71864801645278931 -0.030517200008034706 0.69470399618148804 
127.12000274658203 608.8900146484375 -117.37999725341797 128 0.54848301410675049 0.0080949598923325539 -0.83612197637557983 
26.027999877929688 692.1400146484375 36.185001373291016 128 0.11971700191497803 -0.31552499532699585 0.94133502244949341 
-110.73999786376953 614.83001708984375 24.757999420166016 192 -0.67767798900604248 -0.03164999932050705 0.73467797040939331 
33.819000244140625 626.72998046875 -153.96000671386719 128 -0.43505099415779114 -0.63437497615814209 -0.63898301124572754 
126.11000061035156 608.8900146484375 -118.27999877929688 130 0.66030198335647583 -0.037397000938653946 -0.7500690221786499 
24.621999740600586 692.1400146484375 36.332000732421875 128 0.067812897264957428 -0.35852301120758057 0.93105399608612061 
73.599998474121094 662.4000244140625 43.515998840332031 128 -0.72823798656463623 -0.36111599206924438 0.58246397972106934 
115.23000335693359 613.53997802734375 -124.22000122070312 128 0.47240999341011047 0.18390800058841705 -0.86197900772094727 
139.00999450683594 626.72998046875 -7.2518000602722168 128 0.77156299352645874 0.020027400925755501 0.63583701848983765 
20.082000732421875 692.1400146484375 36.731998443603516 128 0.10937300324440002 -0.34175500273704529 0.93340301513671875 
55.977001190185547 620.780029296875 -153.96000671386719 128 0.057941198348999023 -0.61719101667404175 -0.78467702865600586 
85.492996215820312 654.510009765625 42.277999877929688 128 0.26221901178359985 -0.66739600896835327 0.69701099395751953 
-69.114997863769531 625.3900146484375 -124.22000122070312 128 0.099207803606987 -0.6718369722366333 -0.73402500152587891 
-75.061996459960938 638.6199951171875 41.694000244140625 128 -0.21765199303627014 -0.002433079993352294 0.97602301836013794 
55.761001586914062 620.6500244140625 -153.96000671386719 128 0.057941198348999023 -0.61719101667404175 -0.78467702865600586 
49.813999176025391 620.780029296875 -155.49000549316406 128 0.24849399924278259 -0.57519298791885376 -0.77936100959777832 
98.425003051757812 620.780029296875 -130.16999816894531 128 0.21691599488258362 -0.0916408970952034 -0.97187900543212891 
150.89999389648438 614.83001708984375 -37.780998229980469 128 0.99263101816177368 0.063106700778007507 0.10345000028610229 
-134.52999877929688 597.6199951171875 -5.2937002182006836 64 -0.81695801019668579 -0.021778199821710587 0.57628601789474487 
-51.2760009765625 632.66998291015625 -129.03999328613281 128 0.044573400169610977 -0.72272199392318726 -0.68970000743865967 
97.386001586914062 620.780029296875 -130.6300048828125 128 0.36002999544143677 -0.29950100183486938 -0.88355898857116699 
-142.28999328613281 591.04998779296875 -29.079999923706055 64 -0.98232299089431763 -0.053890299052000046 0.1792680025100708 
-141.25 591.04998779296875 -46.918998718261719 64 -0.99612301588058472 0.0014455999480560422 -0.087955303490161896 
-33.436000823974609 638.6199951171875 -132.77000427246094 128 0.10848899930715561 -0.71507799625396729 -0.69057399034500122 
73.599998474121094 662.719970703125 42.277999877929688 128 -0.99497997760772705 0.070478498935699463 -0.071046702563762665 
-86.955001831054688 614.83001708984375 -118.81999969482422 128 0.075934499502182007 -0.31485000252723694 -0.94609898328781128 
-98.847999572753906 620.780029296875 33.882999420166016 192 -0.35688400268554688 -0.036168899387121201 0.93344801664352417 
-140.47000122070312 591.04998779296875 -51.791000366210938 64 -0.9819980263710022 -0.025991499423980713 -0.18709300458431244 
-15.597000122070312 641.94000244140625 -136.1199951171875 128 -0.24974699318408966 -0.73250299692153931 -0.63329797983169556 
121.16999816894531 608.8900146484375 -122.06999969482422 128 0.61343002319335938 0.0050527201965451241 -0.78973299264907837 
-134.49000549316406 596.989990234375 -5.2937002182006836 64 -0.80196398496627808 -0.076013900339603424 0.59251600503921509 
-104.79000091552734 603.22998046875 -112.33000183105469 128 -0.62675201892852783 -0.22627200186252594 -0.74564200639724731 
-45.328998565673828 634.46002197265625 -130.16999816894531 128 0.10394000262022018 -0.71067500114440918 -0.69580000638961792 
150.91000366210938 602.94000244140625 -82.597999572753906 128 0.86727601289749146 0.10670299828052521 -0.48625698685646057 
150.89999389648438 602.94000244140625 -82.605003356933594 130 0.86727601289749146 0.10670299828052521 -0.48625698685646057 
154.88999938964844 602.94000244140625 -70.705001831054688 130 0.94508397579193115 0.064709201455116272 -0.32035699486732483 
-104.79000091552734 602.94000244140625 -112.23999786376953 128 -0.68923497200012207 -0.19572499394416809 -0.69760102033615112 
153.41000366210938 608.8900146484375 -52.866001129150391 128 0.98804199695587158 0.031088799238204956 0.15102000534534454 
-81.008003234863281 632.66998291015625 40.479000091552734 128 -0.28256198763847351 -0.014486599713563919 0.95914000272750854 
97.386001586914062 619.989990234375 -130.16999816894531 128 0.36002999544143677 -0.29950100183486938 -0.88355898857116699 
3.1445000171661377 638.6199951171875 -142.05999755859375 128 -0.48497998714447021 -0.65957498550415039 -0.57424300909042358 
37.921001434326172 623.719970703125 -153.96000671386719 128 -0.38372901082038879 -0.61062902212142944 -0.69273698329925537 
121.16999816894531 638.6199951171875 10.529000282287598 128 0.70485097169876099 -0.27773100137710571 0.65272599458694458 
147.66999816894531 602.94000244140625 -88.543998718261719 128 0.78411197662353516 0.10001300275325775 -0.61250799894332886 
-128.58000183105469 591.04998779296875 -89.600997924804688 64 -0.66891902685165405 0.10741300135850906 -0.73553401231765747 
-140.08000183105469 591.04998779296875 -17.187000274658203 64 -0.93496197462081909 -0.087035596370697021 0.3439050018787384 
-22.656000137329102 680.239990234375 36.332000732421875 128 0.25763899087905884 -0.28769400715827942 0.92241799831390381 
144.96000671386719 602.94000244140625 -92.830001831054688 128 0.85452598333358765 0.089091598987579346 -0.5117110013961792 
109.27999877929688 644.57000732421875 22.291999816894531 128 0.11709800362586975 -0.69266998767852783 0.71168500185012817 
-86.955001831054688 613.16998291015625 -118.27999877929688 128 0.075934499502182007 -0.31485000252723694 -0.94609898328781128 
43.868000030517578 620.780029296875 -154.63999938964844 128 0.057941198348999023 -0.61719101667404175 -0.78467702865600586 
-51.2760009765625 656.46002197265625 41.027999877929688 128 0.22229699790477753 -0.12391000241041183 0.96707302331924438 
-63.168998718261719 626.72998046875 -124.43000030517578 128 0.13280700147151947 -0.66898298263549805 -0.73131698369979858 
143.89999389648438 602.94000244140625 -94.490997314453125 128 0.8368380069732666 0.22036699950695038 -0.50113999843597412 
20.082000732421875 631.3900146484375 -148.00999450683594 128 -0.46737000346183777 -0.72969502210617065 -0.49910899996757507 
115.23000335693359 608.8900146484375 -125.37999725341797 130 0.35246101021766663 0.11876499652862549 -0.92826002836227417 
67.653999328613281 620.780029296875 -146.19999694824219 128 0.48909500241279602 -0.55684298276901245 -0.67135101556777954 
85.492996215820312 620.989990234375 -136.1199951171875 128 0.3434390127658844 -0.51681602001190186 -0.78418797254562378 
-63.168998718261719 626.489990234375 -124.22000122070312 128 0.11968500167131424 -0.69891500473022461 -0.7051200270652771 
91.44000244140625 651.489990234375 36.332000732421875 128 -0.032647199928760529 -0.89557600021362305 0.44370898604393005 
61.707000732421875 680.239990234375 29.541999816894531 128 0.12047100067138672 -0.066485196352005005 0.99048799276351929 
85.124000549316406 620.780029296875 -136.1199951171875 128 0.35987401008605957 -0.52431601285934448 -0.77174097299575806 
152.19999694824219 608.8900146484375 -46.918998718261719 160 0.97792702913284302 0.02514909952878952 0.20742799341678619 
2.2425000667572021 689.3800048828125 36.332000732421875 128 -0.0014540000120177865 -0.33369699120521545 0.94267898797988892 
49.813999176025391 618.78997802734375 -153.96000671386719 128 0.24849399924278259 -0.57519298791885376 -0.77936100959777832 
42.320999145507812 620.780029296875 -153.96000671386719 128 -0.53473997116088867 -0.63561499118804932 -0.55681902170181274 
-39.382999420166016 635.33001708984375 -130.16999816894531 128 0.10568500310182571 -0.74237698316574097 -0.66159498691558838 
-21.542999267578125 680.239990234375 35.980998992919922 128 0.25763899087905884 -0.28769400715827942 0.92241799831390381 
135.86000061035156 602.94000244140625 -106.37999725341797 128 0.77416098117828369 0.19035999476909637 -0.60368597507476807 
147.67999267578125 614.83001708984375 -23.132999420166016 128 0.92551302909851074 -0.016228599473834038 0.37836900353431702 
-61.698001861572266 626.72998046875 -124.22000122070312 128 0.11968500167131424 -0.69891500473022461 -0.7051200270652771 
133.07000732421875 602.94000244140625 -110.30999755859375 128 0.76835602521896362 0.14049200713634491 -0.62441200017929077 
-98.847999572753906 602.94000244140625 -115.84999847412109 192 -0.59701597690582275 -0.20372800529003143 -0.77592897415161133 
73.599998474121094 620.780029296875 -142.35000610351562 128 0.38040098547935486 -0.6084669828414917 -0.69646501541137695 
-134.44000244140625 585.0999755859375 -82.597999572753906 64 -0.80211299657821655 -0.017376899719238281 -0.59691900014877319 
131.5 602.94000244140625 -112.33000183105469 128 0.76835602521896362 0.14049200713634491 -0.62441200017929077 
-93.522003173828125 620.780029296875 36.332000732421875 64 -0.39152601361274719 -0.032184600830078125 0.91960400342941284 
-27.489999771118164 638.6199951171875 -131.96000671386719 128 0.097980298101902008 -0.71395498514175415 -0.6933019757270813 
-9.6504001617431641 640.280029296875 -136.1199951171875 128 -0.36447501182556152 -0.74316602945327759 -0.56112498044967651 
14.135000228881836 690.1099853515625 36.332000732421875 128 0.067812897264957428 -0.35852301120758057 0.93105399608612061 
-110.75 608.8900146484375 24.438999176025391 64 -0.68813401460647583 -0.032517198473215103 0.72485500574111938 
-110.73999786376953 608.8900146484375 24.444000244140625 64 -0.68813401460647583 -0.032517198473215103 0.72485500574111938 
151.38999938964844 608.8900146484375 -40.972999572753906 128 0.98683500289916992 0.020247399806976318 0.16046099364757538 
-110.73999786376953 608.79998779296875 24.438999176025391 64 -0.6681169867515564 -0.040744900703430176 0.74294000864028931 
-138.3800048828125 585.0999755859375 -64.758003234863281 64 -0.98087197542190552 -0.13468199968338013 -0.14054100215435028 
8.189000129699707 689.4000244140625 36.332000732421875 128 0.051163099706172943 -0.34892898797988892 0.93575102090835571 
-81.008003234863281 614.83001708984375 -118.45999908447266 128 0.15975500643253326 -0.39371299743652344 -0.90524500608444214 
